ply
format ascii 1.0
element vertex 1159
property float x
property float y
property float z
property uchar red
property uchar green
property uchar blue
end_header
2.312500 -9.187500 -32.000000 122 122 122 
3.187500 -9.187500 -32.000000 142 142 142 
3.250000 -9.187500 -32.000000 142 142 142 
3.312500 -9.187500 -32.000000 143 143 143 
3.375000 -9.187500 -32.000000 145 145 145 
3.437500 -9.187500 -32.000000 144 144 144 
3.500000 -9.187500 -32.000000 144 144 144 
2.327869 -4.819672 -16.786884 137 137 137 
2.285714 -4.666667 -16.253969 137 137 137 
2.317460 -4.666667 -16.253969 136 136 136 
2.349206 -4.666667 -16.253969 136 136 136 
2.380952 -4.666667 -16.253969 136 136 136 
5.250000 -9.187500 -32.000000 124 124 124 
2.048193 -3.542169 -12.337349 121 121 121 
2.023530 -3.458823 -12.047059 119 119 119 
2.047059 -3.458823 -12.047059 117 117 117 
2.070588 -3.458823 -12.047059 114 114 114 
2.094118 -3.458823 -12.047059 115 115 115 
2.117647 -3.458823 -12.047059 115 115 115 
3.433962 -5.547170 -19.320755 109 109 109 
3.755102 -6.000000 -20.897959 84 84 84 
3.795918 -6.000000 -20.897959 56 56 56 
3.418182 -5.345455 -18.618181 47 47 47 
3.220339 -4.983051 -17.355932 43 43 43 
2.206897 -3.379310 -11.770115 30 30 30 
2.229885 -3.379310 -11.770115 26 26 26 
3.680751 -5.521127 -19.230047 62 62 62 
1.276074 -1.803681 -6.282208 143 143 143 
1.288344 -1.803681 -6.282208 149 149 149 
1.300614 -1.803681 -6.282208 157 157 157 
1.312883 -1.803681 -6.282208 148 148 148 
1.341615 -1.826087 -6.360249 134 134 134 
1.354037 -1.826087 -6.360249 123 123 123 
1.366460 -1.826087 -6.360249 117 117 117 
1.361963 -1.803681 -6.282208 117 117 117 
1.374233 -1.803681 -6.282208 113 113 113 
1.386503 -1.803681 -6.282208 108 108 108 
1.398773 -1.803681 -6.282208 107 107 107 
1.393939 -1.781818 -6.206060 109 109 109 
1.254054 -1.589189 -5.535135 117 117 117 
1.252174 -1.573244 -5.479599 128 128 128 
1.248677 -1.555556 -5.417989 144 144 144 
1.902098 -2.349650 -8.183816 153 153 153 
3.478261 -4.260870 -14.840580 149 149 149 
3.507246 -4.260870 -14.840580 143 143 143 
2.085470 -2.512820 -8.752137 123 123 123 
2.067227 -2.470588 -8.605042 70 70 70 
2.016260 -2.390244 -8.325203 47 47 47 
1.633987 -1.921569 -6.692811 38 38 38 
1.647059 -1.921569 -6.692811 40 40 40 
2.132214 -2.467996 -8.596012 47 47 47 
8.000000 -9.187500 -32.000000 36 36 36 
8.062500 -9.187500 -32.000000 18 18 18 
8.125000 -9.187500 -32.000000 16 16 16 
8.187500 -9.187500 -32.000000 17 17 17 
8.250000 -9.187500 -32.000000 21 21 21 
8.312500 -9.187500 -32.000000 25 25 25 
8.375000 -9.187500 -32.000000 31 31 31 
8.437500 -9.187500 -32.000000 37 37 37 
8.500000 -9.187500 -32.000000 42 42 42 
8.562500 -9.187500 -32.000000 44 44 44 
8.625000 -9.187500 -32.000000 47 47 47 
8.687500 -9.187500 -32.000000 51 51 51 
8.750000 -9.187500 -32.000000 48 48 48 
8.812500 -9.187500 -32.000000 49 49 49 
1.581152 -1.539267 -5.361257 48 48 48 
1.608466 -1.555556 -5.417989 79 79 79 
1.619048 -1.555556 -5.417989 121 121 121 
1.629630 -1.555556 -5.417989 168 168 168 
1.623037 -1.539267 -5.361257 199 199 199 
1.633508 -1.539267 -5.361257 227 227 227 
1.626943 -1.523316 -5.305699 243 243 243 
1.620513 -1.507692 -5.251282 249 249 249 
1.630769 -1.507692 -5.251282 250 250 250 
2.784530 -1.624309 -5.657459 39 39 39 
2.826816 -1.642458 -5.720670 18 18 18 
2.837989 -1.642458 -5.720670 5 5 5 
2.817680 -1.624309 -5.657459 4 4 4 
2.767568 -1.589189 -5.535135 4 4 4 
2.778378 -1.589189 -5.535135 4 4 4 
2.789189 -1.589189 -5.535135 5 5 5 
2.800000 -1.589189 -5.535135 6 6 6 
2.841530 -1.606557 -5.595628 7 7 7 
2.852459 -1.606557 -5.595628 14 14 14 
2.863388 -1.606557 -5.595628 35 35 35 
2.874317 -1.606557 -5.595628 50 50 50 
2.854054 -1.589189 -5.535135 60 60 60 
2.864865 -1.589189 -5.535135 82 82 82 
2.875676 -1.589189 -5.535135 114 114 114 
8.281691 -4.140845 -14.422535 100 100 100 
8.082191 -4.027397 -14.027397 120 120 120 
8.338028 -4.140845 -14.422535 151 151 151 
8.136987 -4.027397 -14.027397 164 164 164 
8.164384 -4.027397 -14.027397 166 166 166 
8.191781 -4.027397 -14.027397 151 151 151 
8.000000 -3.920000 -13.653334 126 126 126 
7.818182 -3.818182 -13.298701 113 113 113 
7.844156 -3.818182 -13.298701 108 108 108 
7.670886 -3.721519 -12.962026 112 112 112 
7.696203 -3.721519 -12.962026 104 104 104 
7.530864 -3.629630 -12.641975 94 94 94 
7.555555 -3.629630 -12.641975 114 114 114 
7.580247 -3.629630 -12.641975 114 114 114 
7.421687 -3.542169 -12.337349 86 86 86 
4.575592 -2.142076 -7.460838 15 15 15 
4.585987 -2.140127 -7.454049 14 14 14 
4.583862 -2.132366 -7.427017 11 11 11 
4.590045 -2.128507 -7.413575 11 11 11 
4.587917 -2.120830 -7.386835 11 11 11 
4.589928 -2.115108 -7.366907 12 12 12 
0.216216 -8.000000 -27.675676 82 82 82 
0.270270 -8.000000 -27.675676 144 144 144 
0.324324 -8.000000 -27.675676 198 198 198 
0.400000 -8.457143 -29.257143 230 230 230 
0.457143 -8.457143 -29.257143 246 246 246 
0.562500 -9.250000 -32.000000 246 246 246 
0.625000 -9.250000 -32.000000 236 236 236 
0.687500 -9.250000 -32.000000 232 232 232 
0.750000 -9.250000 -32.000000 221 221 221 
0.812500 -9.250000 -32.000000 177 177 177 
0.875000 -9.250000 -32.000000 164 164 164 
0.937500 -9.250000 -32.000000 164 164 164 
1.000000 -9.250000 -32.000000 159 159 159 
1.062500 -9.250000 -32.000000 149 149 149 
1.125000 -9.250000 -32.000000 137 137 137 
1.085714 -8.457143 -29.257143 130 130 130 
1.081081 -8.000000 -27.675676 133 133 133 
1.135135 -8.000000 -27.675676 141 141 141 
1.230769 -7.589744 -26.256411 171 171 171 
0.735294 -4.352941 -15.058824 192 192 192 
0.764706 -4.352941 -15.058824 207 207 207 
1.588235 -8.705882 -30.117647 207 207 207 
1.647059 -8.705882 -30.117647 184 184 184 
1.657143 -8.457143 -29.257143 146 146 146 
1.714286 -8.457143 -29.257143 116 116 116 
1.771429 -8.457143 -29.257143 101 101 101 
1.828571 -8.457143 -29.257143 97 97 97 
1.885714 -8.457143 -29.257143 92 92 92 
1.942857 -8.457143 -29.257143 89 89 89 
2.000000 -8.457143 -29.257143 94 94 94 
2.057143 -8.457143 -29.257143 102 102 102 
2.114286 -8.457143 -29.257143 110 110 110 
2.171429 -8.457143 -29.257143 117 117 117 
2.228571 -8.457143 -29.257143 122 122 122 
3.125000 -9.250000 -32.000000 138 138 138 
3.187500 -9.250000 -32.000000 140 140 140 
3.250000 -9.250000 -32.000000 140 140 140 
3.312500 -9.250000 -32.000000 142 142 142 
3.375000 -9.250000 -32.000000 143 143 143 
3.437500 -9.250000 -32.000000 142 142 142 
3.500000 -9.250000 -32.000000 140 140 140 
2.456140 -5.192983 -17.964912 139 139 139 
2.327869 -4.852459 -16.786884 137 137 137 
2.360656 -4.852459 -16.786884 137 137 137 
2.317460 -4.698413 -16.253969 136 136 136 
2.349206 -4.698413 -16.253969 135 135 135 
2.155844 -3.844156 -13.298701 128 128 128 
2.048780 -3.609756 -12.487804 126 126 126 
2.048193 -3.566265 -12.337349 122 122 122 
2.023530 -3.482353 -12.047059 119 119 119 
2.047059 -3.482353 -12.047059 118 118 118 
2.070588 -3.482353 -12.047059 115 115 115 
2.094118 -3.482353 -12.047059 117 117 117 
2.117647 -3.482353 -12.047059 116 116 116 
2.386885 -3.881967 -13.429508 109 109 109 
3.755102 -6.040816 -20.897959 82 82 82 
3.795918 -6.040816 -20.897959 54 54 54 
4.177778 -6.577778 -22.755556 45 45 45 
4.222222 -6.577778 -22.755556 37 37 37 
3.918367 -6.040816 -20.897959 27 27 27 
2.229885 -3.402299 -11.770115 25 25 25 
2.252874 -3.402299 -11.770115 50 50 50 
1.889908 -2.715596 -9.394495 137 137 137 
1.260606 -1.793939 -6.206060 146 146 146 
1.288344 -1.815951 -6.282208 151 151 151 
1.300614 -1.815951 -6.282208 156 156 156 
1.312883 -1.815951 -6.282208 157 157 157 
1.325153 -1.815951 -6.282208 148 148 148 
1.337423 -1.815951 -6.282208 135 135 135 
1.349693 -1.815951 -6.282208 126 126 126 
1.361963 -1.815951 -6.282208 119 119 119 
1.374233 -1.815951 -6.282208 116 116 116 
1.386503 -1.815951 -6.282208 111 111 111 
1.398773 -1.815951 -6.282208 107 107 107 
1.393939 -1.793939 -6.206060 106 106 106 
1.254054 -1.600000 -5.535135 106 106 106 
1.264865 -1.600000 -5.535135 117 117 117 
1.858268 -2.330709 -8.062992 136 136 136 
3.552239 -4.417911 -15.283582 152 152 152 
3.582090 -4.417911 -15.283582 157 157 157 
3.507246 -4.289855 -14.840580 144 144 144 
2.159292 -2.619469 -9.061947 105 105 105 
2.067227 -2.487395 -8.605042 56 56 56 
2.049587 -2.446281 -8.462810 51 51 51 
2.032520 -2.406504 -8.325203 46 46 46 
2.093458 -2.458982 -8.506750 36 36 36 
6.864865 -8.000000 -27.675676 26 26 26 
8.000000 -9.250000 -32.000000 18 18 18 
8.062500 -9.250000 -32.000000 15 15 15 
8.125000 -9.250000 -32.000000 16 16 16 
8.187500 -9.250000 -32.000000 18 18 18 
8.250000 -9.250000 -32.000000 21 21 21 
8.312500 -9.250000 -32.000000 24 24 24 
8.375000 -9.250000 -32.000000 31 31 31 
8.437500 -9.250000 -32.000000 37 37 37 
8.500000 -9.250000 -32.000000 41 41 41 
8.562500 -9.250000 -32.000000 43 43 43 
8.625000 -9.250000 -32.000000 44 44 44 
8.687500 -9.250000 -32.000000 48 48 48 
8.750000 -9.250000 -32.000000 49 49 49 
8.812500 -9.250000 -32.000000 52 52 52 
8.875000 -9.250000 -32.000000 55 55 55 
8.228572 -8.457143 -29.257143 56 56 56 
8.285714 -8.457143 -29.257143 55 55 55 
1.581152 -1.549738 -5.361257 28 28 28 
1.591623 -1.549738 -5.361257 46 46 46 
1.602094 -1.549738 -5.361257 77 77 77 
1.612565 -1.549738 -5.361257 113 113 113 
1.623037 -1.549738 -5.361257 144 144 144 
1.633508 -1.549738 -5.361257 177 177 177 
1.626943 -1.533679 -5.305699 207 207 207 
1.637306 -1.533679 -5.305699 233 233 233 
1.630769 -1.517949 -5.251282 249 249 249 
2.732240 -1.617486 -5.595628 62 62 62 
2.743169 -1.617486 -5.595628 54 54 54 
2.754098 -1.617486 -5.595628 34 34 34 
2.826816 -1.653631 -5.720670 14 14 14 
2.806630 -1.635359 -5.657459 5 5 5 
2.817680 -1.635359 -5.657459 4 4 4 
2.828729 -1.635359 -5.657459 4 4 4 
2.839779 -1.635359 -5.657459 4 4 4 
2.850829 -1.635359 -5.657459 6 6 6 
2.861878 -1.635359 -5.657459 6 6 6 
2.872928 -1.635359 -5.657459 6 6 6 
2.883978 -1.635359 -5.657459 11 11 11 
2.895028 -1.635359 -5.657459 20 20 20 
2.906077 -1.635359 -5.657459 25 25 25 
2.917127 -1.635359 -5.657459 28 28 28 
2.864865 -1.600000 -5.535135 41 41 41 
2.875676 -1.600000 -5.535135 57 57 57 
2.886487 -1.600000 -5.535135 79 79 79 
8.054794 -4.054794 -14.027397 172 172 172 
8.082191 -4.054794 -14.027397 172 172 172 
8.109589 -4.054794 -14.027397 166 166 166 
8.136987 -4.054794 -14.027397 150 150 150 
8.164384 -4.054794 -14.027397 119 119 119 
8.191781 -4.054794 -14.027397 90 90 90 
8.219178 -4.054794 -14.027397 93 93 93 
7.818182 -3.844156 -13.298701 110 110 110 
7.844156 -3.844156 -13.298701 111 111 111 
7.670886 -3.746835 -12.962026 109 109 109 
7.696203 -3.746835 -12.962026 108 108 108 
7.530864 -3.654321 -12.641975 104 104 104 
7.555555 -3.654321 -12.641975 101 101 101 
7.580247 -3.654321 -12.641975 99 99 99 
7.421687 -3.566265 -12.337349 76 76 76 
4.519196 -2.164534 -7.488117 44 44 44 
4.594203 -2.144928 -7.420290 13 13 13 
4.583784 -2.133333 -7.380180 11 11 11 
4.577579 -2.123767 -7.347085 11 11 11 
0.216216 -8.054054 -27.675676 63 63 63 
0.270270 -8.054054 -27.675676 94 94 94 
0.324324 -8.054054 -27.675676 145 145 145 
0.400000 -8.514286 -29.257143 182 182 182 
0.457143 -8.514286 -29.257143 218 218 218 
0.562500 -9.312500 -32.000000 239 239 239 
0.625000 -9.312500 -32.000000 246 246 246 
0.687500 -9.312500 -32.000000 240 240 240 
0.750000 -9.312500 -32.000000 219 219 219 
0.812500 -9.312500 -32.000000 170 170 170 
0.875000 -9.312500 -32.000000 146 146 146 
0.937500 -9.312500 -32.000000 142 142 142 
1.000000 -9.312500 -32.000000 139 139 139 
1.062500 -9.312500 -32.000000 133 133 133 
1.125000 -9.312500 -32.000000 125 125 125 
1.085714 -8.514286 -29.257143 117 117 117 
1.142857 -8.514286 -29.257143 119 119 119 
1.200000 -8.514286 -29.257143 122 122 122 
1.189189 -8.054054 -27.675676 130 130 130 
1.243243 -8.054054 -27.675676 137 137 137 
1.230769 -7.641026 -26.256411 142 142 142 
0.735294 -4.382353 -15.058824 148 148 148 
0.764706 -4.382353 -15.058824 157 157 157 
1.687500 -9.312500 -32.000000 169 169 169 
1.750000 -9.312500 -32.000000 174 174 174 
1.657143 -8.514286 -29.257143 158 158 158 
1.714286 -8.514286 -29.257143 134 134 134 
1.771429 -8.514286 -29.257143 107 107 107 
1.828571 -8.514286 -29.257143 98 98 98 
1.885714 -8.514286 -29.257143 97 97 97 
1.942857 -8.514286 -29.257143 97 97 97 
2.000000 -8.514286 -29.257143 101 101 101 
2.057143 -8.514286 -29.257143 106 106 106 
2.114286 -8.514286 -29.257143 115 115 115 
2.171429 -8.514286 -29.257143 121 121 121 
2.228571 -8.514286 -29.257143 128 128 128 
2.285714 -8.514286 -29.257143 132 132 132 
3.062500 -9.312500 -32.000000 136 136 136 
3.125000 -9.312500 -32.000000 137 137 137 
3.187500 -9.312500 -32.000000 138 138 138 
3.250000 -9.312500 -32.000000 137 137 137 
3.312500 -9.312500 -32.000000 138 138 138 
3.375000 -9.312500 -32.000000 138 138 138 
3.437500 -9.312500 -32.000000 139 139 139 
3.500000 -9.312500 -32.000000 136 136 136 
2.456140 -5.228070 -17.964912 139 139 139 
2.327869 -4.885246 -16.786884 138 138 138 
2.360656 -4.885246 -16.786884 138 138 138 
2.317460 -4.730159 -16.253969 137 137 137 
2.349206 -4.730159 -16.253969 135 135 135 
2.307692 -4.584615 -15.753846 135 135 135 
2.155844 -3.870130 -13.298701 126 126 126 
2.074074 -3.679012 -12.641975 126 126 126 
2.048193 -3.590361 -12.337349 123 123 123 
2.072289 -3.590361 -12.337349 120 120 120 
2.047059 -3.505882 -12.047059 119 119 119 
2.070588 -3.505882 -12.047059 118 118 118 
2.094118 -3.505882 -12.047059 117 117 117 
2.117647 -3.505882 -12.047059 116 116 116 
2.386885 -3.908197 -13.429508 107 107 107 
3.755102 -6.081633 -20.897959 80 80 80 
4.133333 -6.622222 -22.755556 55 55 55 
4.177778 -6.622222 -22.755556 46 46 46 
4.418605 -6.930233 -23.813953 35 35 35 
4.266667 -6.622222 -22.755556 25 25 25 
4.311111 -6.622222 -22.755556 27 27 27 
2.252874 -3.425287 -11.770115 41 41 41 
2.275862 -3.425287 -11.770115 80 80 80 
1.929742 -2.791569 -9.592505 131 131 131 
1.939394 -2.778555 -9.547786 143 143 143 
1.958042 -2.778555 -9.547786 159 159 159 
1.981308 -2.785047 -9.570093 165 165 165 
1.312883 -1.828221 -6.282208 164 164 164 
1.325153 -1.828221 -6.282208 160 160 160 
1.337423 -1.828221 -6.282208 152 152 152 
1.349693 -1.828221 -6.282208 138 138 138 
1.361963 -1.828221 -6.282208 124 124 124 
1.374233 -1.828221 -6.282208 123 123 123 
1.386503 -1.828221 -6.282208 129 129 129 
1.381818 -1.806061 -6.206060 126 126 126 
1.256831 -1.628415 -5.595628 125 125 125 
1.254054 -1.610811 -5.535135 124 124 124 
1.264865 -1.610811 -5.535135 128 128 128 
2.126126 -2.684685 -9.225225 132 132 132 
3.116883 -3.870130 -13.298701 135 135 135 
3.142857 -3.870130 -13.298701 131 131 131 
3.088608 -3.772152 -12.962026 81 81 81 
2.067227 -2.504202 -8.605042 49 49 49 
2.084034 -2.504202 -8.605042 48 48 48 
2.100840 -2.504202 -8.605042 57 57 57 
6.631579 -7.842105 -26.947369 61 61 61 
7.937500 -9.312500 -32.000000 39 39 39 
8.000000 -9.312500 -32.000000 15 15 15 
8.062500 -9.312500 -32.000000 14 14 14 
8.125000 -9.312500 -32.000000 16 16 16 
8.187500 -9.312500 -32.000000 18 18 18 
8.250000 -9.312500 -32.000000 22 22 22 
8.312500 -9.312500 -32.000000 28 28 28 
8.375000 -9.312500 -32.000000 34 34 34 
8.437500 -9.312500 -32.000000 37 37 37 
8.500000 -9.312500 -32.000000 39 39 39 
8.562500 -9.312500 -32.000000 42 42 42 
8.625000 -9.312500 -32.000000 45 45 45 
8.687500 -9.312500 -32.000000 48 48 48 
8.750000 -9.312500 -32.000000 50 50 50 
8.812500 -9.312500 -32.000000 53 53 53 
8.875000 -9.312500 -32.000000 54 54 54 
8.937500 -9.312500 -32.000000 57 57 57 
8.228572 -8.514286 -29.257143 59 59 59 
8.055555 -8.277778 -28.444445 59 59 59 
7.891892 -8.054054 -27.675676 47 47 47 
1.581152 -1.560209 -5.361257 20 20 20 
1.591623 -1.560209 -5.361257 27 27 27 
1.602094 -1.560209 -5.361257 45 45 45 
1.612565 -1.560209 -5.361257 71 71 71 
1.623037 -1.560209 -5.361257 93 93 93 
1.633508 -1.560209 -5.361257 120 120 120 
1.626943 -1.544041 -5.305699 158 158 158 
1.637306 -1.544041 -5.305699 188 188 188 
1.630769 -1.528205 -5.251282 224 224 224 
1.641026 -1.528205 -5.251282 245 245 245 
2.732240 -1.628415 -5.595628 61 61 61 
2.743169 -1.628415 -5.595628 47 47 47 
2.784530 -1.646409 -5.657459 25 25 25 
2.826816 -1.664804 -5.720670 8 8 8 
2.806630 -1.646409 -5.657459 5 5 5 
2.817680 -1.646409 -5.657459 5 5 5 
2.828729 -1.646409 -5.657459 9 9 9 
2.839779 -1.646409 -5.657459 9 9 9 
2.850829 -1.646409 -5.657459 8 8 8 
2.861878 -1.646409 -5.657459 7 7 7 
2.872928 -1.646409 -5.657459 10 10 10 
2.883978 -1.646409 -5.657459 25 25 25 
2.895028 -1.646409 -5.657459 38 38 38 
2.906077 -1.646409 -5.657459 40 40 40 
2.917127 -1.646409 -5.657459 34 34 34 
2.896175 -1.628415 -5.595628 24 24 24 
2.875676 -1.610811 -5.535135 14 14 14 
2.886487 -1.610811 -5.535135 13 13 13 
8.054794 -4.082192 -14.027397 186 186 186 
8.082191 -4.082192 -14.027397 190 190 190 
8.109589 -4.082192 -14.027397 199 199 199 
8.136987 -4.082192 -14.027397 184 184 184 
8.164384 -4.082192 -14.027397 128 128 128 
8.191781 -4.082192 -14.027397 141 141 141 
8.000000 -3.973333 -13.653334 185 185 185 
7.818182 -3.870130 -13.298701 207 207 207 
7.844156 -3.870130 -13.298701 212 212 212 
7.670886 -3.772152 -12.962026 210 210 210 
7.696203 -3.772152 -12.962026 206 206 206 
7.530864 -3.679012 -12.641975 202 202 202 
7.555555 -3.679012 -12.641975 197 197 197 
7.580247 -3.679012 -12.641975 192 192 192 
7.421687 -3.590361 -12.337349 158 158 158 
4.585895 -2.155515 -7.406872 12 12 12 
4.579658 -2.145815 -7.373538 12 12 12 
4.561215 -2.130474 -7.320822 11 11 11 
0.139535 -6.976744 -23.813953 73 73 73 
0.205128 -7.692307 -26.256411 57 57 57 
0.270270 -8.108109 -27.675676 93 93 93 
0.324324 -8.108109 -27.675676 146 146 146 
0.400000 -8.571428 -29.257143 156 156 156 
0.500000 -9.375000 -32.000000 176 176 176 
0.562500 -9.375000 -32.000000 205 205 205 
0.625000 -9.375000 -32.000000 234 234 234 
0.687500 -9.375000 -32.000000 245 245 245 
0.750000 -9.375000 -32.000000 228 228 228 
0.812500 -9.375000 -32.000000 174 174 174 
0.875000 -9.375000 -32.000000 145 145 145 
0.937500 -9.375000 -32.000000 142 142 142 
1.000000 -9.375000 -32.000000 141 141 141 
1.062500 -9.375000 -32.000000 137 137 137 
1.125000 -9.375000 -32.000000 130 130 130 
1.187500 -9.375000 -32.000000 122 122 122 
1.250000 -9.375000 -32.000000 119 119 119 
1.200000 -8.571428 -29.257143 120 120 120 
1.257143 -8.571428 -29.257143 124 124 124 
1.243243 -8.108109 -27.675676 131 131 131 
1.297297 -8.108109 -27.675676 137 137 137 
1.351351 -8.108109 -27.675676 141 141 141 
1.625000 -9.375000 -32.000000 142 142 142 
1.687500 -9.375000 -32.000000 137 137 137 
1.750000 -9.375000 -32.000000 134 134 134 
1.812500 -9.375000 -32.000000 128 128 128 
1.714286 -8.571428 -29.257143 117 117 117 
1.771429 -8.571428 -29.257143 97 97 97 
1.828571 -8.571428 -29.257143 81 81 81 
1.885714 -8.571428 -29.257143 77 77 77 
1.837838 -8.108109 -27.675676 84 84 84 
1.891892 -8.108109 -27.675676 99 99 99 
1.945946 -8.108109 -27.675676 118 118 118 
2.000000 -8.108109 -27.675676 136 136 136 
2.054054 -8.108109 -27.675676 151 151 151 
2.108108 -8.108109 -27.675676 165 165 165 
2.285714 -8.571428 -29.257143 176 176 176 
2.342857 -8.571428 -29.257143 183 183 183 
2.625000 -9.375000 -32.000000 189 189 189 
3.000000 -9.375000 -32.000000 180 180 180 
3.062500 -9.375000 -32.000000 175 175 175 
3.125000 -9.375000 -32.000000 169 169 169 
3.187500 -9.375000 -32.000000 165 165 165 
3.250000 -9.375000 -32.000000 160 160 160 
3.312500 -9.375000 -32.000000 157 157 157 
3.375000 -9.375000 -32.000000 153 153 153 
3.437500 -9.375000 -32.000000 149 149 149 
3.500000 -9.375000 -32.000000 145 145 145 
2.491228 -5.263158 -17.964912 138 138 138 
2.360656 -4.918033 -16.786884 137 137 137 
2.317460 -4.761905 -16.253969 136 136 136 
2.276923 -4.615385 -15.753846 135 135 135 
2.307692 -4.615385 -15.753846 134 134 134 
2.338462 -4.615385 -15.753846 134 134 134 
2.101266 -3.797468 -12.962026 127 127 127 
2.074074 -3.703704 -12.641975 125 125 125 
2.098765 -3.703704 -12.641975 123 123 123 
2.072289 -3.614458 -12.337349 120 120 120 
2.096385 -3.614458 -12.337349 117 117 117 
2.070588 -3.529412 -12.047059 117 117 117 
2.094118 -3.529412 -12.047059 117 117 117 
2.117647 -3.529412 -12.047059 116 116 116 
2.141176 -3.529412 -12.047059 107 107 107 
3.755102 -6.122449 -20.897959 78 78 78 
3.957447 -6.382979 -21.787233 56 56 56 
4.000000 -6.382979 -21.787233 45 45 45 
4.222222 -6.666667 -22.755556 37 37 37 
4.266667 -6.666667 -22.755556 30 30 30 
4.311111 -6.666667 -22.755556 29 29 29 
4.355556 -6.666667 -22.755556 37 37 37 
2.275862 -3.448276 -11.770115 65 65 65 
2.298851 -3.448276 -11.770115 109 109 109 
1.929742 -2.810304 -9.592505 129 129 129 
1.939394 -2.797203 -9.547786 141 141 141 
1.962617 -2.803738 -9.570093 154 154 154 
1.325153 -1.840491 -6.282208 173 173 173 
1.337423 -1.840491 -6.282208 179 179 179 
1.349693 -1.840491 -6.282208 165 165 165 
1.361963 -1.840491 -6.282208 137 137 137 
1.374233 -1.840491 -6.282208 125 125 125 
1.369697 -1.818182 -6.206060 127 127 127 
1.273743 -1.675978 -5.720670 127 127 127 
1.256831 -1.639344 -5.595628 123 123 123 
1.254902 -1.622718 -5.538877 123 123 123 
1.265720 -1.622718 -5.538877 132 132 132 
3.598513 -4.460967 -15.226766 118 118 118 
3.088608 -3.797468 -12.962026 66 66 66 
2.067227 -2.521008 -8.605042 50 50 50 
2.194690 -2.654867 -9.061947 41 41 41 
2.252252 -2.702703 -9.225225 35 35 35 
7.875000 -9.375000 -32.000000 38 38 38 
7.937500 -9.375000 -32.000000 31 31 31 
8.000000 -9.375000 -32.000000 15 15 15 
8.062500 -9.375000 -32.000000 13 13 13 
8.125000 -9.375000 -32.000000 15 15 15 
8.187500 -9.375000 -32.000000 17 17 17 
8.250000 -9.375000 -32.000000 22 22 22 
8.312500 -9.375000 -32.000000 29 29 29 
8.375000 -9.375000 -32.000000 36 36 36 
8.437500 -9.375000 -32.000000 37 37 37 
8.500000 -9.375000 -32.000000 42 42 42 
8.562500 -9.375000 -32.000000 45 45 45 
8.625000 -9.375000 -32.000000 48 48 48 
8.687500 -9.375000 -32.000000 50 50 50 
8.750000 -9.375000 -32.000000 51 51 51 
8.812500 -9.375000 -32.000000 55 55 55 
8.875000 -9.375000 -32.000000 57 57 57 
8.937500 -9.375000 -32.000000 59 59 59 
9.000000 -9.375000 -32.000000 61 61 61 
8.285714 -8.571428 -29.257143 60 60 60 
7.891892 -8.108109 -27.675676 49 49 49 
7.945946 -8.108109 -27.675676 22 22 22 
1.581152 -1.570681 -5.361257 19 19 19 
1.591623 -1.570681 -5.361257 21 21 21 
1.602094 -1.570681 -5.361257 31 31 31 
1.612565 -1.570681 -5.361257 58 58 58 
1.623037 -1.570681 -5.361257 96 96 96 
1.616580 -1.554404 -5.305699 129 129 129 
1.626943 -1.554404 -5.305699 152 152 152 
1.637306 -1.554404 -5.305699 163 163 163 
1.630769 -1.538462 -5.251282 186 186 186 
1.641026 -1.538462 -5.251282 216 216 216 
3.894428 -2.346041 -8.007820 61 61 61 
2.732240 -1.639344 -5.595628 51 51 51 
2.743169 -1.639344 -5.595628 25 25 25 
2.784530 -1.657459 -5.657459 11 11 11 
2.795580 -1.657459 -5.657459 6 6 6 
2.806630 -1.657459 -5.657459 7 7 7 
2.817680 -1.657459 -5.657459 30 30 30 
2.828729 -1.657459 -5.657459 51 51 51 
2.839779 -1.657459 -5.657459 40 40 40 
2.850829 -1.657459 -5.657459 31 31 31 
2.861878 -1.657459 -5.657459 23 23 23 
2.872928 -1.657459 -5.657459 23 23 23 
2.883978 -1.657459 -5.657459 38 38 38 
2.895028 -1.657459 -5.657459 48 48 48 
2.874317 -1.639344 -5.595628 48 48 48 
2.885246 -1.639344 -5.595628 39 39 39 
2.896175 -1.639344 -5.595628 22 22 22 
2.875676 -1.621622 -5.535135 13 13 13 
2.886487 -1.621622 -5.535135 13 13 13 
14.254545 -7.272727 -24.824242 119 119 119 
8.309859 -4.225352 -14.422535 122 122 122 
8.109589 -4.109589 -14.027397 131 131 131 
8.136987 -4.109589 -14.027397 115 115 115 
7.946667 -4.000000 -13.653334 111 111 111 
7.973333 -4.000000 -13.653334 183 183 183 
7.792208 -3.896104 -13.298701 212 212 212 
7.818182 -3.896104 -13.298701 213 213 213 
7.645570 -3.797468 -12.962026 215 215 215 
7.670886 -3.797468 -12.962026 217 217 217 
7.506173 -3.703704 -12.641975 215 215 215 
7.530864 -3.703704 -12.641975 214 214 214 
7.555555 -3.703704 -12.641975 213 213 213 
7.580247 -3.703704 -12.641975 213 213 213 
4.565217 -2.173913 -7.420290 14 14 14 
4.575566 -2.171946 -7.413575 13 13 13 
4.577617 -2.166065 -7.393502 13 13 13 
4.579658 -2.160216 -7.373538 12 12 12 
4.557143 -2.142857 -7.314286 11 11 11 
0.133333 -6.711111 -22.755556 81 81 81 
0.205128 -7.743590 -26.256411 64 64 64 
0.256410 -7.743590 -26.256411 106 106 106 
0.324324 -8.162162 -27.675676 190 190 190 
0.400000 -8.628572 -29.257143 206 206 206 
0.500000 -9.437500 -32.000000 195 195 195 
0.562500 -9.437500 -32.000000 191 191 191 
0.625000 -9.437500 -32.000000 207 207 207 
0.687500 -9.437500 -32.000000 234 234 234 
0.750000 -9.437500 -32.000000 241 241 241 
0.812500 -9.437500 -32.000000 194 194 194 
0.875000 -9.437500 -32.000000 147 147 147 
0.937500 -9.437500 -32.000000 141 141 141 
1.000000 -9.437500 -32.000000 140 140 140 
1.062500 -9.437500 -32.000000 138 138 138 
1.125000 -9.437500 -32.000000 133 133 133 
1.187500 -9.437500 -32.000000 124 124 124 
1.250000 -9.437500 -32.000000 118 118 118 
1.312500 -9.437500 -32.000000 119 119 119 
1.375000 -9.437500 -32.000000 120 120 120 
1.314286 -8.628572 -29.257143 125 125 125 
1.371429 -8.628572 -29.257143 132 132 132 
1.562500 -9.437500 -32.000000 137 137 137 
1.625000 -9.437500 -32.000000 141 141 141 
1.687500 -9.437500 -32.000000 139 139 139 
1.750000 -9.437500 -32.000000 135 135 135 
1.812500 -9.437500 -32.000000 126 126 126 
1.714286 -8.628572 -29.257143 116 116 116 
1.771429 -8.628572 -29.257143 101 101 101 
1.828571 -8.628572 -29.257143 79 79 79 
1.885714 -8.628572 -29.257143 66 66 66 
1.837838 -8.162162 -27.675676 64 64 64 
1.891892 -8.162162 -27.675676 75 75 75 
1.846154 -7.743590 -26.256411 100 100 100 
1.897436 -7.743590 -26.256411 122 122 122 
1.948718 -7.743590 -26.256411 139 139 139 
2.000000 -7.743590 -26.256411 158 158 158 
2.051282 -7.743590 -26.256411 178 178 178 
2.102564 -7.743590 -26.256411 192 192 192 
2.153846 -7.743590 -26.256411 203 203 203 
2.937500 -9.437500 -32.000000 224 224 224 
3.000000 -9.437500 -32.000000 225 225 225 
3.062500 -9.437500 -32.000000 224 224 224 
3.125000 -9.437500 -32.000000 221 221 221 
3.187500 -9.437500 -32.000000 220 220 220 
3.250000 -9.437500 -32.000000 219 219 219 
3.312500 -9.437500 -32.000000 216 216 216 
3.375000 -9.437500 -32.000000 212 212 212 
3.437500 -9.437500 -32.000000 207 207 207 
3.500000 -9.437500 -32.000000 202 202 202 
2.360656 -4.950819 -16.786884 137 137 137 
2.317460 -4.793651 -16.253969 136 136 136 
2.349206 -4.793651 -16.253969 135 135 135 
2.307692 -4.646154 -15.753846 133 133 133 
2.268657 -4.507463 -15.283582 132 132 132 
2.298507 -4.507463 -15.283582 134 134 134 
2.126582 -3.822785 -12.962026 125 125 125 
2.098765 -3.728395 -12.641975 123 123 123 
2.123457 -3.728395 -12.641975 121 121 121 
2.096385 -3.638554 -12.337349 118 118 118 
2.070588 -3.552941 -12.047059 116 116 116 
2.094118 -3.552941 -12.047059 117 117 117 
2.117647 -3.552941 -12.047059 115 115 115 
2.141176 -3.552941 -12.047059 104 104 104 
3.755102 -6.163265 -20.897959 73 73 73 
3.957447 -6.425532 -21.787233 54 54 54 
4.000000 -6.425532 -21.787233 46 46 46 
4.222222 -6.711111 -22.755556 40 40 40 
4.266667 -6.711111 -22.755556 34 34 34 
6.062500 -9.437500 -32.000000 32 32 32 
6.125000 -9.437500 -32.000000 37 37 37 
6.187500 -9.437500 -32.000000 51 51 51 
6.250000 -9.437500 -32.000000 95 95 95 
1.943925 -2.822430 -9.570093 138 138 138 
1.962617 -2.822430 -9.570093 146 146 146 
1.309091 -1.830303 -6.206060 171 171 171 
1.321212 -1.830303 -6.206060 182 182 182 
1.333333 -1.830303 -6.206060 184 184 184 
1.345455 -1.830303 -6.206060 159 159 159 
1.357576 -1.830303 -6.206060 132 132 132 
1.321637 -1.766082 -5.988304 123 123 123 
1.273743 -1.687151 -5.720670 123 123 123 
1.256831 -1.650273 -5.595628 124 124 124 
1.267760 -1.650273 -5.595628 130 130 130 
1.625000 -2.097222 -7.111111 141 141 141 
2.111857 -2.702461 -9.163311 145 145 145 
2.067227 -2.537815 -8.605042 54 54 54 
2.194690 -2.672566 -9.061947 57 57 57 
7.812500 -9.437500 -32.000000 47 47 47 
7.875000 -9.437500 -32.000000 27 27 27 
7.937500 -9.437500 -32.000000 14 14 14 
8.000000 -9.437500 -32.000000 11 11 11 
8.062500 -9.437500 -32.000000 12 12 12 
8.125000 -9.437500 -32.000000 14 14 14 
8.187500 -9.437500 -32.000000 16 16 16 
8.250000 -9.437500 -32.000000 20 20 20 
8.312500 -9.437500 -32.000000 27 27 27 
8.375000 -9.437500 -32.000000 35 35 35 
8.437500 -9.437500 -32.000000 39 39 39 
8.500000 -9.437500 -32.000000 43 43 43 
8.562500 -9.437500 -32.000000 45 45 45 
8.625000 -9.437500 -32.000000 49 49 49 
8.687500 -9.437500 -32.000000 53 53 53 
8.750000 -9.437500 -32.000000 54 54 54 
8.812500 -9.437500 -32.000000 59 59 59 
8.875000 -9.437500 -32.000000 59 59 59 
8.937500 -9.437500 -32.000000 59 59 59 
9.000000 -9.437500 -32.000000 59 59 59 
9.062500 -9.437500 -32.000000 58 58 58 
8.342857 -8.628572 -29.257143 49 49 49 
8.400000 -8.628572 -29.257143 24 24 24 
8.457143 -8.628572 -29.257143 18 18 18 
8.054054 -8.162162 -27.675676 21 21 21 
4.225352 -4.253521 -14.422535 21 21 21 
4.136986 -4.136986 -14.027397 20 20 20 
1.591623 -1.581152 -5.361257 20 20 20 
1.602094 -1.581152 -5.361257 27 27 27 
1.612565 -1.581152 -5.361257 51 51 51 
1.606218 -1.564767 -5.305699 107 107 107 
1.616580 -1.564767 -5.305699 175 175 175 
1.626943 -1.564767 -5.305699 215 215 215 
1.620513 -1.548718 -5.251282 220 220 220 
1.630769 -1.548718 -5.251282 211 211 211 
1.641026 -1.548718 -5.251282 207 207 207 
2.732240 -1.650273 -5.595628 28 28 28 
2.743169 -1.650273 -5.595628 11 11 11 
2.754098 -1.650273 -5.595628 7 7 7 
2.795580 -1.668508 -5.657459 7 7 7 
2.806630 -1.668508 -5.657459 32 32 32 
2.817680 -1.668508 -5.657459 76 76 76 
2.828729 -1.668508 -5.657459 54 54 54 
2.839779 -1.668508 -5.657459 31 31 31 
2.850829 -1.668508 -5.657459 32 32 32 
2.861878 -1.668508 -5.657459 40 40 40 
2.872928 -1.668508 -5.657459 47 47 47 
2.883978 -1.668508 -5.657459 52 52 52 
2.863388 -1.650273 -5.595628 53 53 53 
2.874317 -1.650273 -5.595628 47 47 47 
2.885246 -1.650273 -5.595628 32 32 32 
2.896175 -1.650273 -5.595628 16 16 16 
2.875676 -1.632432 -5.535135 27 27 27 
7.893333 -4.026667 -13.653334 69 69 69 
7.920000 -4.026667 -13.653334 67 67 67 
7.740260 -3.922078 -13.298701 79 79 79 
7.766234 -3.922078 -13.298701 121 121 121 
7.792208 -3.922078 -13.298701 149 149 149 
7.818182 -3.922078 -13.298701 158 158 158 
7.645570 -3.822785 -12.962026 185 185 185 
7.670886 -3.822785 -12.962026 211 211 211 
7.506173 -3.728395 -12.641975 220 220 220 
7.530864 -3.728395 -12.641975 223 223 223 
7.373494 -3.638554 -12.337349 225 225 225 
7.397590 -3.638554 -12.337349 226 226 226 
4.550725 -2.188406 -7.420290 15 15 15 
4.561086 -2.186425 -7.413575 13 13 13 
4.571429 -2.184448 -7.406872 13 13 13 
4.577617 -2.180506 -7.393502 13 13 13 
4.583784 -2.176577 -7.380180 13 13 13 
4.561215 -2.159070 -7.320822 12 12 12 
0.139535 -7.069767 -23.813953 72 72 72 
0.205128 -7.794872 -26.256411 60 60 60 
0.256410 -7.794872 -26.256411 96 96 96 
0.324324 -8.216216 -27.675676 191 191 191 
0.400000 -8.685715 -29.257143 237 237 237 
0.500000 -9.500000 -32.000000 241 241 241 
0.562500 -9.500000 -32.000000 225 225 225 
0.625000 -9.500000 -32.000000 204 204 204 
0.687500 -9.500000 -32.000000 214 214 214 
0.750000 -9.500000 -32.000000 238 238 238 
0.812500 -9.500000 -32.000000 213 213 213 
0.875000 -9.500000 -32.000000 157 157 157 
0.937500 -9.500000 -32.000000 142 142 142 
1.000000 -9.500000 -32.000000 140 140 140 
1.062500 -9.500000 -32.000000 140 140 140 
1.125000 -9.500000 -32.000000 136 136 136 
1.187500 -9.500000 -32.000000 131 131 131 
1.250000 -9.500000 -32.000000 121 121 121 
1.312500 -9.500000 -32.000000 118 118 118 
1.375000 -9.500000 -32.000000 117 117 117 
1.437500 -9.500000 -32.000000 118 118 118 
1.500000 -9.500000 -32.000000 124 124 124 
1.562500 -9.500000 -32.000000 132 132 132 
1.625000 -9.500000 -32.000000 137 137 137 
1.687500 -9.500000 -32.000000 139 139 139 
1.750000 -9.500000 -32.000000 139 139 139 
1.812500 -9.500000 -32.000000 134 134 134 
1.875000 -9.500000 -32.000000 126 126 126 
1.771429 -8.685715 -29.257143 114 114 114 
1.828571 -8.685715 -29.257143 95 95 95 
1.885714 -8.685715 -29.257143 76 76 76 
1.837838 -8.216216 -27.675676 64 64 64 
1.794872 -7.794872 -26.256411 62 62 62 
1.756098 -7.414634 -24.975609 72 72 72 
1.804878 -7.414634 -24.975609 91 91 91 
1.853659 -7.414634 -24.975609 107 107 107 
1.902439 -7.414634 -24.975609 121 121 121 
1.951220 -7.414634 -24.975609 137 137 137 
2.000000 -7.414634 -24.975609 157 157 157 
2.048780 -7.414634 -24.975609 171 171 171 
2.097561 -7.414634 -24.975609 182 182 182 
2.937500 -9.500000 -32.000000 216 216 216 
3.000000 -9.500000 -32.000000 220 220 220 
3.062500 -9.500000 -32.000000 222 222 222 
3.125000 -9.500000 -32.000000 224 224 224 
3.187500 -9.500000 -32.000000 226 226 226 
3.250000 -9.500000 -32.000000 228 228 228 
3.312500 -9.500000 -32.000000 227 227 227 
3.375000 -9.500000 -32.000000 227 227 227 
3.437500 -9.500000 -32.000000 227 227 227 
3.500000 -9.500000 -32.000000 227 227 227 
2.393443 -4.983606 -16.786884 135 135 135 
2.349206 -4.825397 -16.253969 133 133 133 
2.380952 -4.825397 -16.253969 131 131 131 
2.338462 -4.676923 -15.753846 132 132 132 
2.298507 -4.537313 -15.283582 136 136 136 
2.120482 -3.662651 -12.337349 116 116 116 
2.094118 -3.576471 -12.047059 115 115 115 
2.117647 -3.576471 -12.047059 114 114 114 
2.141176 -3.576471 -12.047059 102 102 102 
2.164706 -3.576471 -12.047059 70 70 70 
2.188235 -3.576471 -12.047059 54 54 54 
2.211765 -3.576471 -12.047059 47 47 47 
3.877551 -6.204082 -20.897959 42 42 42 
3.918367 -6.204082 -20.897959 36 36 36 
6.062500 -9.500000 -32.000000 34 34 34 
6.125000 -9.500000 -32.000000 40 40 40 
6.187500 -9.500000 -32.000000 45 45 45 
6.250000 -9.500000 -32.000000 77 77 77 
1.955763 -2.831199 -9.536671 135 135 135 
1.284848 -1.842424 -6.206060 144 144 144 
1.296970 -1.842424 -6.206060 156 156 156 
1.309091 -1.842424 -6.206060 168 168 168 
1.321212 -1.842424 -6.206060 175 175 175 
1.333333 -1.842424 -6.206060 178 178 178 
1.345455 -1.842424 -6.206060 167 167 167 
1.357576 -1.842424 -6.206060 142 142 142 
1.369697 -1.842424 -6.206060 129 129 129 
1.317919 -1.757225 -5.919075 128 128 128 
1.284916 -1.698324 -5.720670 124 124 124 
1.611111 -2.111111 -7.111111 136 136 136 
1.625000 -2.111111 -7.111111 144 144 144 
1.638889 -2.111111 -7.111111 144 144 144 
1.652778 -2.111111 -7.111111 147 147 147 
7.750000 -9.500000 -32.000000 48 48 48 
7.812500 -9.500000 -32.000000 54 54 54 
7.875000 -9.500000 -32.000000 38 38 38 
7.937500 -9.500000 -32.000000 15 15 15 
8.000000 -9.500000 -32.000000 11 11 11 
8.062500 -9.500000 -32.000000 12 12 12 
8.125000 -9.500000 -32.000000 14 14 14 
8.187500 -9.500000 -32.000000 16 16 16 
8.250000 -9.500000 -32.000000 20 20 20 
8.312500 -9.500000 -32.000000 26 26 26 
8.375000 -9.500000 -32.000000 32 32 32 
8.437500 -9.500000 -32.000000 40 40 40 
8.500000 -9.500000 -32.000000 45 45 45 
8.562500 -9.500000 -32.000000 47 47 47 
8.625000 -9.500000 -32.000000 48 48 48 
8.687500 -9.500000 -32.000000 52 52 52 
8.750000 -9.500000 -32.000000 53 53 53 
8.812500 -9.500000 -32.000000 57 57 57 
8.875000 -9.500000 -32.000000 57 57 57 
8.937500 -9.500000 -32.000000 60 60 60 
9.000000 -9.500000 -32.000000 61 61 61 
9.062500 -9.500000 -32.000000 57 57 57 
9.125000 -9.500000 -32.000000 49 49 49 
9.187500 -9.500000 -32.000000 29 29 29 
8.457143 -8.685715 -29.257143 23 23 23 
8.054054 -8.216216 -27.675676 24 24 24 
4.347826 -4.405797 -14.840580 22 22 22 
4.253521 -4.281690 -14.422535 23 23 23 
1.591623 -1.591623 -5.361257 21 21 21 
1.585492 -1.575130 -5.305699 21 21 21 
1.595855 -1.575130 -5.305699 33 33 33 
1.606218 -1.575130 -5.305699 73 73 73 
1.616580 -1.575130 -5.305699 131 131 131 
1.610256 -1.558974 -5.251282 183 183 183 
1.620513 -1.558974 -5.251282 230 230 230 
1.630769 -1.558974 -5.251282 245 245 245 
1.624365 -1.543147 -5.197969 240 240 240 
1.634518 -1.543147 -5.197969 231 231 231 
2.732240 -1.661202 -5.595628 13 13 13 
2.713514 -1.643243 -5.535135 11 11 11 
2.754098 -1.661202 -5.595628 7 7 7 
2.765027 -1.661202 -5.595628 16 16 16 
2.775956 -1.661202 -5.595628 66 66 66 
2.817680 -1.679558 -5.657459 59 59 59 
2.828729 -1.679558 -5.657459 18 18 18 
2.839779 -1.679558 -5.657459 8 8 8 
2.850829 -1.679558 -5.657459 9 9 9 
2.830601 -1.661202 -5.595628 20 20 20 
2.841530 -1.661202 -5.595628 40 40 40 
2.852459 -1.661202 -5.595628 55 55 55 
2.863388 -1.661202 -5.595628 58 58 58 
2.874317 -1.661202 -5.595628 51 51 51 
2.854054 -1.643243 -5.535135 28 28 28 
2.864865 -1.643243 -5.535135 20 20 20 
7.920000 -4.053333 -13.653334 134 134 134 
7.740260 -3.948052 -13.298701 157 157 157 
7.766234 -3.948052 -13.298701 167 167 167 
7.792208 -3.948052 -13.298701 171 171 171 
7.818182 -3.948052 -13.298701 173 173 173 
7.645570 -3.848101 -12.962026 187 187 187 
7.670886 -3.848101 -12.962026 199 199 199 
7.506173 -3.753086 -12.641975 202 202 202 
7.349398 -3.662651 -12.337349 202 202 202 
5.513514 -2.738739 -9.225225 204 204 204 
5.531531 -2.738739 -9.225225 204 204 204 
4.550725 -2.202899 -7.420290 15 15 15 
4.561086 -2.200905 -7.413575 14 14 14 
4.571429 -2.198915 -7.406872 13 13 13 
4.577617 -2.194946 -7.393502 13 13 13 
4.583784 -2.190991 -7.380180 14 14 14 
4.561215 -2.173369 -7.320822 12 12 12 
0.205128 -7.846154 -26.256411 79 79 79 
0.256410 -7.846154 -26.256411 106 106 106 
0.324324 -8.270270 -27.675676 164 164 164 
0.437500 -9.562500 -32.000000 211 211 211 
0.500000 -9.562500 -32.000000 236 236 236 
0.562500 -9.562500 -32.000000 245 245 245 
0.625000 -9.562500 -32.000000 233 233 233 
0.687500 -9.562500 -32.000000 223 223 223 
0.750000 -9.562500 -32.000000 228 228 228 
0.812500 -9.562500 -32.000000 223 223 223 
0.875000 -9.562500 -32.000000 182 182 182 
0.937500 -9.562500 -32.000000 148 148 148 
1.000000 -9.562500 -32.000000 141 141 141 
1.062500 -9.562500 -32.000000 141 141 141 
1.125000 -9.562500 -32.000000 139 139 139 
1.187500 -9.562500 -32.000000 138 138 138 
1.250000 -9.562500 -32.000000 134 134 134 
1.312500 -9.562500 -32.000000 124 124 124 
1.375000 -9.562500 -32.000000 117 117 117 
1.437500 -9.562500 -32.000000 114 114 114 
1.500000 -9.562500 -32.000000 117 117 117 
1.562500 -9.562500 -32.000000 125 125 125 
1.625000 -9.562500 -32.000000 134 134 134 
1.687500 -9.562500 -32.000000 139 139 139 
1.750000 -9.562500 -32.000000 141 141 141 
1.812500 -9.562500 -32.000000 138 138 138 
1.875000 -9.562500 -32.000000 133 133 133 
1.771429 -8.742857 -29.257143 124 124 124 
1.828571 -8.742857 -29.257143 110 110 110 
1.627907 -7.116279 -23.813953 62 62 62 
1.531915 -6.510638 -21.787233 61 61 61 
1.644444 -6.800000 -22.755556 69 69 69 
1.688889 -6.800000 -22.755556 81 81 81 
1.813954 -7.116279 -23.813953 90 90 90 
1.860465 -7.116279 -23.813953 95 95 95 
1.906977 -7.116279 -23.813953 104 104 104 
1.953488 -7.116279 -23.813953 116 116 116 
2.000000 -7.116279 -23.813953 122 122 122 
2.046512 -7.116279 -23.813953 131 131 131 
2.875000 -9.562500 -32.000000 148 148 148 
2.937500 -9.562500 -32.000000 157 157 157 
3.000000 -9.562500 -32.000000 163 163 163 
3.062500 -9.562500 -32.000000 167 167 167 
3.125000 -9.562500 -32.000000 173 173 173 
3.187500 -9.562500 -32.000000 178 178 178 
3.250000 -9.562500 -32.000000 181 181 181 
3.312500 -9.562500 -32.000000 187 187 187 
3.375000 -9.562500 -32.000000 191 191 191 
3.437500 -9.562500 -32.000000 197 197 197 
3.500000 -9.562500 -32.000000 206 206 206 
2.144578 -3.686747 -12.337349 136 136 136 
2.117647 -3.600000 -12.047059 155 155 155 
2.141176 -3.600000 -12.047059 135 135 135 
2.164706 -3.600000 -12.047059 74 74 74 
2.188235 -3.600000 -12.047059 53 53 53 
2.160919 -3.517241 -11.770115 46 46 46 
2.183908 -3.517241 -11.770115 40 40 40 
2.206897 -3.517241 -11.770115 34 34 34 
6.062500 -9.562500 -32.000000 34 34 34 
6.125000 -9.562500 -32.000000 42 42 42 
6.187500 -9.562500 -32.000000 45 45 45 
1.284848 -1.854545 -6.206060 126 126 126 
1.296970 -1.854545 -6.206060 139 139 139 
1.309091 -1.854545 -6.206060 152 152 152 
1.321212 -1.854545 -6.206060 167 167 167 
1.560284 -2.170213 -7.262411 178 178 178 
1.574468 -2.170213 -7.262411 178 178 178 
1.588652 -2.170213 -7.262411 155 155 155 
1.602837 -2.170213 -7.262411 134 134 134 
1.594406 -2.139860 -7.160839 131 131 131 
1.608392 -2.139860 -7.160839 131 131 131 
1.622378 -2.139860 -7.160839 139 139 139 
1.636364 -2.139860 -7.160839 139 139 139 
1.638889 -2.125000 -7.111111 134 134 134 
1.641379 -2.110345 -7.062069 138 138 138 
2.157303 -2.750562 -9.204494 118 118 118 
7.750000 -9.562500 -32.000000 34 34 34 
7.812500 -9.562500 -32.000000 29 29 29 
7.875000 -9.562500 -32.000000 24 24 24 
7.937500 -9.562500 -32.000000 14 14 14 
8.000000 -9.562500 -32.000000 12 12 12 
8.062500 -9.562500 -32.000000 12 12 12 
8.125000 -9.562500 -32.000000 14 14 14 
8.187500 -9.562500 -32.000000 16 16 16 
8.312500 -9.562500 -32.000000 23 23 23 
8.375000 -9.562500 -32.000000 30 30 30 
8.437500 -9.562500 -32.000000 40 40 40 
8.500000 -9.562500 -32.000000 47 47 47 
8.562500 -9.562500 -32.000000 49 49 49 
8.625000 -9.562500 -32.000000 47 47 47 
8.687500 -9.562500 -32.000000 51 51 51 
8.750000 -9.562500 -32.000000 54 54 54 
8.812500 -9.562500 -32.000000 57 57 57 
8.875000 -9.562500 -32.000000 59 59 59 
8.937500 -9.562500 -32.000000 62 62 62 
9.000000 -9.562500 -32.000000 63 63 63 
9.062500 -9.562500 -32.000000 59 59 59 
9.125000 -9.562500 -32.000000 50 50 50 
9.187500 -9.562500 -32.000000 32 32 32 
9.250000 -9.562500 -32.000000 29 29 29 
8.514286 -8.742857 -29.257143 30 30 30 
4.347826 -4.434783 -14.840580 27 27 27 
4.253521 -4.309859 -14.422535 26 26 26 
4.222222 -4.250000 -14.222222 23 23 23 
1.585492 -1.585492 -5.305699 19 19 19 
1.595855 -1.585492 -5.305699 24 24 24 
1.606218 -1.585492 -5.305699 49 49 49 
1.600000 -1.569231 -5.251282 85 85 85 
1.610256 -1.569231 -5.251282 122 122 122 
1.620513 -1.569231 -5.251282 179 179 179 
1.614213 -1.553300 -5.197969 226 226 226 
1.624365 -1.553300 -5.197969 246 246 246 
1.634518 -1.553300 -5.197969 248 248 248 
2.702703 -1.654054 -5.535135 16 16 16 
2.713514 -1.654054 -5.535135 14 14 14 
2.724324 -1.654054 -5.535135 12 12 12 
2.765027 -1.672131 -5.595628 40 40 40 
2.745946 -1.654054 -5.535135 67 67 67 
2.756757 -1.654054 -5.535135 27 27 27 
2.797814 -1.672131 -5.595628 7 7 7 
2.808743 -1.672131 -5.595628 5 5 5 
2.819672 -1.672131 -5.595628 5 5 5 
2.830601 -1.672131 -5.595628 18 18 18 
2.841530 -1.672131 -5.595628 34 34 34 
2.852459 -1.672131 -5.595628 46 46 46 
2.863388 -1.672131 -5.595628 51 51 51 
2.843243 -1.654054 -5.535135 53 53 53 
2.854054 -1.654054 -5.535135 42 42 42 
2.864865 -1.654054 -5.535135 33 33 33 
7.740260 -3.974026 -13.298701 177 177 177 
7.766234 -3.974026 -13.298701 179 179 179 
7.792208 -3.974026 -13.298701 181 181 181 
7.818182 -3.974026 -13.298701 180 180 180 
7.645570 -3.873418 -12.962026 179 179 179 
7.670886 -3.873418 -12.962026 176 176 176 
7.506173 -3.777778 -12.641975 166 166 166 
7.349398 -3.686747 -12.337349 163 163 163 
5.513514 -2.756757 -9.225225 180 180 180 
5.531531 -2.756757 -9.225225 187 187 187 
4.565217 -2.217391 -7.420290 14 14 14 
4.575566 -2.215385 -7.413575 14 14 14 
4.585895 -2.213382 -7.406872 14 14 14 
4.583784 -2.205405 -7.380180 13 13 13 
4.012578 -1.924528 -6.440251 12 12 12 
0.205128 -7.897436 -26.256411 66 66 66 
0.256410 -7.897436 -26.256411 91 91 91 
0.324324 -8.324325 -27.675676 125 125 125 
0.437500 -9.625000 -32.000000 160 160 160 
0.500000 -9.625000 -32.000000 197 197 197 
0.562500 -9.625000 -32.000000 232 232 232 
0.625000 -9.625000 -32.000000 234 234 234 
0.687500 -9.625000 -32.000000 238 238 238 
0.750000 -9.625000 -32.000000 231 231 231 
0.812500 -9.625000 -32.000000 220 220 220 
0.875000 -9.625000 -32.000000 216 216 216 
0.937500 -9.625000 -32.000000 180 180 180 
1.000000 -9.625000 -32.000000 143 143 143 
1.062500 -9.625000 -32.000000 141 141 141 
1.125000 -9.625000 -32.000000 141 141 141 
1.187500 -9.625000 -32.000000 167 167 167 
1.250000 -9.625000 -32.000000 191 191 191 
1.312500 -9.625000 -32.000000 146 146 146 
1.375000 -9.625000 -32.000000 118 118 118 
1.437500 -9.625000 -32.000000 115 115 115 
1.500000 -9.625000 -32.000000 115 115 115 
1.562500 -9.625000 -32.000000 120 120 120 
1.625000 -9.625000 -32.000000 128 128 128 
1.687500 -9.625000 -32.000000 137 137 137 
1.750000 -9.625000 -32.000000 143 143 143 
1.812500 -9.625000 -32.000000 149 149 149 
1.828571 -8.800000 -29.257143 123 123 123 
1.885714 -8.800000 -29.257143 108 108 108 
1.942857 -8.800000 -29.257143 90 90 90 
1.424936 -6.269720 -20.844784 71 71 71 
1.465649 -6.269720 -20.844784 61 61 61 
1.574468 -6.553192 -21.787233 61 61 61 
1.688889 -6.844444 -22.755556 68 68 68 
1.733333 -6.844444 -22.755556 78 78 78 
1.777778 -6.844444 -22.755556 86 86 86 
1.822222 -6.844444 -22.755556 93 93 93 
1.866667 -6.844444 -22.755556 102 102 102 
1.911111 -6.844444 -22.755556 111 111 111 
1.955556 -6.844444 -22.755556 117 117 117 
2.093023 -7.162791 -23.813953 123 123 123 
2.875000 -9.625000 -32.000000 127 127 127 
2.937500 -9.625000 -32.000000 134 134 134 
3.000000 -9.625000 -32.000000 137 137 137 
3.062500 -9.625000 -32.000000 138 138 138 
3.125000 -9.625000 -32.000000 139 139 139 
3.187500 -9.625000 -32.000000 140 140 140 
3.250000 -9.625000 -32.000000 140 140 140 
3.312500 -9.625000 -32.000000 141 141 141 
3.375000 -9.625000 -32.000000 142 142 142 
3.437500 -9.625000 -32.000000 144 144 144 
2.168675 -3.710843 -12.337349 189 189 189 
2.141176 -3.623529 -12.047059 153 153 153 
2.164706 -3.623529 -12.047059 74 74 74 
2.188235 -3.623529 -12.047059 54 54 54 
2.211765 -3.623529 -12.047059 47 47 47 
2.183908 -3.540230 -11.770115 40 40 40 
2.206897 -3.540230 -11.770115 31 31 31 
2.229885 -3.540230 -11.770115 33 33 33 
2.252874 -3.540230 -11.770115 43 43 43 
6.187500 -9.625000 -32.000000 46 46 46 
1.272727 -1.866667 -6.206060 95 95 95 
1.269461 -1.844311 -6.131737 104 104 104 
1.296970 -1.866667 -6.206060 115 115 115 
1.309091 -1.866667 -6.206060 124 124 124 
1.557143 -2.200000 -7.314286 136 136 136 
1.582734 -2.215827 -7.366907 160 160 160 
1.597122 -2.215827 -7.366907 182 182 182 
1.611511 -2.215827 -7.366907 170 170 170 
1.602837 -2.184397 -7.262411 134 134 134 
1.617021 -2.184397 -7.262411 120 120 120 
1.631206 -2.184397 -7.262411 130 130 130 
1.645390 -2.184397 -7.262411 140 140 140 
1.636364 -2.153846 -7.160839 142 142 142 
1.650350 -2.153846 -7.160839 135 135 135 
1.641379 -2.124138 -7.062069 127 127 127 
1.655172 -2.124138 -7.062069 83 83 83 
2.175281 -2.768539 -9.204494 56 56 56 
7.812500 -9.625000 -32.000000 27 27 27 
7.875000 -9.625000 -32.000000 13 13 13 
7.937500 -9.625000 -32.000000 11 11 11 
8.000000 -9.625000 -32.000000 13 13 13 
8.062500 -9.625000 -32.000000 12 12 12 
8.125000 -9.625000 -32.000000 14 14 14 
8.187500 -9.625000 -32.000000 16 16 16 
8.250000 -9.625000 -32.000000 18 18 18 
8.312500 -9.625000 -32.000000 21 21 21 
8.375000 -9.625000 -32.000000 28 28 28 
8.437500 -9.625000 -32.000000 38 38 38 
8.500000 -9.625000 -32.000000 46 46 46 
8.562500 -9.625000 -32.000000 48 48 48 
8.625000 -9.625000 -32.000000 50 50 50 
8.687500 -9.625000 -32.000000 53 53 53 
8.750000 -9.625000 -32.000000 55 55 55 
8.812500 -9.625000 -32.000000 58 58 58 
8.875000 -9.625000 -32.000000 62 62 62 
8.937500 -9.625000 -32.000000 65 65 65 
9.000000 -9.625000 -32.000000 63 63 63 
9.062500 -9.625000 -32.000000 62 62 62 
9.125000 -9.625000 -32.000000 52 52 52 
9.187500 -9.625000 -32.000000 34 34 34 
9.250000 -9.625000 -32.000000 33 33 33 
9.312500 -9.625000 -32.000000 35 35 35 
8.571428 -8.800000 -29.257143 32 32 32 
4.376812 -4.463768 -14.840580 30 30 30 
4.222222 -4.277778 -14.222222 26 26 26 
1.569231 -1.579487 -5.251282 21 21 21 
1.579487 -1.579487 -5.251282 24 24 24 
1.589744 -1.579487 -5.251282 44 44 44 
1.600000 -1.579487 -5.251282 76 76 76 
1.610256 -1.579487 -5.251282 96 96 96 
1.620513 -1.579487 -5.251282 128 128 128 
1.614213 -1.563452 -5.197969 173 173 173 
1.624365 -1.563452 -5.197969 213 213 213 
1.618091 -1.547739 -5.145729 239 239 239 
1.628141 -1.547739 -5.145729 248 248 248 
13.562500 -9.625000 -32.000000 114 114 114 
8.549020 -6.039216 -20.078432 117 117 117 
8.588235 -6.039216 -20.078432 139 139 139 
8.627451 -6.039216 -20.078432 120 120 120 
8.666667 -6.039216 -20.078432 78 78 78 
8.377358 -5.811321 -19.320755 97 97 97 
8.415094 -5.811321 -19.320755 123 123 123 
7.929824 -5.403509 -17.964912 130 130 130 
